NCOLS 248
NROWS 32
XLLCORNER 688866
YLLCORNER 5112503.8
CELLSIZE 100.000000
NODATA_VALUE        1e31
1e31        1e31        1e31        1e31        1e31        1e31        1e31        1e31        1e31        1e31        1e31        1e31        1e31        1e31        1e31        1e31        1e31        1e31        1e31        1e31        1e31        1e31        1e31        1e31        1e31        1e31        1e31        1e31        1e31        1e31        1e31        1e31        1e31        1e31        1e31        1e31        1e31        1e31        1e31        1e31        1e31        1e31        1e31     2130.48     2137.74     2159.64     2190.14     2220.86      2258.2     2303.84        1e31        1e31        1e31        1e31        1e31        1e31        1e31        1e31        1e31        1e31        1e31        1e31        1e31        1e31        1e31        1e31     2392.93     2311.82     2285.29     2256.75     2210.45     2168.53     2111.53     2089.93     2085.55     2099.92     2119.94     2146.54     2187.23     2225.64     2268.36     2331.13     2392.37     2444.91     2490.37     2463.12     2393.43     2358.12     2329.23     2300.75     2283.51     2230.71     2170.28     2137.83     2122.93     2109.71     2080.54     2046.34     2017.75     1993.18     1969.22     1946.88     1931.67     1921.33     1928.13     1939.73     1966.79     2000.41     2035.21     2077.03     2114.97     2161.34     2204.19     2235.24     2299.08     2377.58     2446.81     2477.34     2522.97     2470.86     2402.04     2389.01     2389.81     2387.24     2380.39     2371.12     2359.11     2339.76     2316.33     2277.96     2247.73     2224.87     2213.82     2206.19     2201.15     2199.99     2198.51     2200.88     2199.07     2196.73     2215.46     2226.57      2235.2     2262.47     2297.61     2328.89     2363.79     2409.13     2435.26     2456.32     2406.43      2415.3     2484.84     2521.66     2482.87     2463.85     2513.63     2567.23        2550     2537.26     2566.95     2588.99     2547.19     2527.38     2541.76     2564.24     2589.29        1e31        1e31        1e31     2614.42      2626.1     2625.57     2576.85     2585.61     2596.62     2636.91        1e31        1e31        1e31     2696.99     2703.91     2705.86        1e31        1e31        1e31        1e31        1e31        1e31        1e31        1e31        1e31        1e31        1e31        1e31        1e31        1e31        1e31        1e31        1e31        1e31        1e31        1e31        1e31        1e31        1e31        1e31        1e31        1e31        1e31        1e31        1e31        1e31        1e31        1e31        1e31        1e31        1e31        1e31        1e31        1e31        1e31        1e31        1e31        1e31        1e31        1e31        1e31        1e31        1e31        1e31        1e31        1e31        1e31        1e31        1e31        1e31        1e31        1e31        1e31        1e31        1e31        1e31        1e31        1e31        1e31        1e31        1e31
1e31        1e31        1e31        1e31        1e31        1e31        1e31        1e31        1e31        1e31        1e31        1e31        1e31        1e31        1e31        1e31        1e31        1e31        1e31        1e31        1e31        1e31        1e31        1e31        1e31        1e31        1e31        1e31        1e31     2287.75     2251.69     2213.44     2187.08        1e31        1e31        1e31        1e31        1e31        1e31        1e31        1e31     2100.38     2111.81     2113.68     2125.81      2143.8     2172.76      2208.5     2244.76      2283.8      2320.5     2366.01        1e31        1e31        1e31        1e31        1e31        1e31        1e31        1e31        1e31        1e31        1e31        1e31        1e31        1e31     2393.44      2342.6      2297.3     2269.04     2199.14     2135.38      2089.3     2066.71     2052.33     2057.94     2080.22     2107.29     2146.15     2196.05     2237.26     2287.17     2338.42     2384.42     2454.49     2507.46     2511.57     2412.11      2363.6     2324.61     2312.59     2274.28     2199.34     2151.41     2138.18     2133.97     2077.07     2043.65     2020.64     1998.84      1976.8     1956.53     1935.98     1916.91     1917.06     1930.69      1949.6     1978.87     2006.77     2038.73     2077.55     2120.08     2158.47     2219.06     2288.39     2351.65     2404.12     2429.53     2483.72     2450.01     2390.63      2373.5     2371.24     2370.07     2364.85     2356.77     2346.08     2331.55     2309.69     2269.27     2240.35      2220.4     2209.11     2201.65     2194.76     2189.07     2186.09     2187.29     2182.73     2188.09     2190.92     2202.24     2210.57     2231.72     2260.39     2281.66     2310.87     2348.12     2368.57     2403.14     2364.76     2383.19     2444.46     2464.21     2419.15     2405.06      2470.6     2514.79      2484.8     2453.54     2488.72     2542.25     2490.39     2464.56     2480.57     2495.38     2525.17     2568.09     2557.31     2549.32      2547.6     2559.85     2562.92     2515.24     2510.22     2531.44      2566.4     2641.33     2663.13     2654.21     2645.34     2670.69     2661.11        1e31        1e31        1e31        1e31        1e31        1e31        1e31        1e31        1e31        1e31        1e31        1e31        1e31        1e31        1e31        1e31        1e31        1e31        1e31        1e31        1e31        1e31        1e31        1e31        1e31        1e31        1e31        1e31        1e31        1e31        1e31        1e31        1e31        1e31        1e31        1e31        1e31        1e31        1e31        1e31        1e31        1e31        1e31        1e31        1e31        1e31        1e31        1e31        1e31        1e31        1e31        1e31        1e31        1e31        1e31        1e31        1e31        1e31        1e31        1e31        1e31        1e31        1e31        1e31        1e31
1e31        1e31        1e31        1e31        1e31        1e31        1e31        1e31        1e31        1e31        1e31        1e31        1e31        1e31        1e31        1e31        1e31        1e31        1e31        1e31        1e31        1e31        1e31        1e31        1e31        1e31        1e31        1e31        1e31     2277.69     2232.99     2189.89     2161.85     2135.46        1e31        1e31        1e31        1e31        1e31        1e31     2065.36     2072.23     2082.34     2087.39     2099.78     2123.92     2153.24     2191.84     2225.79     2262.61     2294.37      2336.4     2401.65        1e31        1e31        1e31        1e31        1e31        1e31        1e31        1e31        1e31        1e31        1e31        1e31     2432.91     2392.94     2364.58     2302.72        2266     2187.65     2124.15     2072.87     2045.25      2034.6      2034.2     2043.15     2069.87     2101.11     2148.71     2197.82     2236.37     2281.37     2351.53      2412.9     2468.67     2508.65     2419.45     2377.82     2356.26     2310.69     2274.41     2221.03     2171.49     2161.23     2137.47     2072.42     2036.73     2012.88     1988.83      1968.9     1950.01     1932.07     1914.07     1905.87     1919.56     1937.01     1957.66     1983.47     2013.74     2047.83     2080.95     2139.19     2197.12     2256.95      2303.5     2335.11      2386.2     2447.21      2453.9     2393.95     2371.84     2358.98     2350.74     2345.94     2339.46     2331.73     2320.57     2300.88     2265.39      2226.4     2208.09     2198.98     2192.02     2182.12     2167.48     2161.55     2161.43     2158.09     2164.29     2164.48     2176.38     2191.16     2215.19      2230.2     2241.98     2257.07     2289.28     2313.99     2336.93     2325.87     2335.02     2375.64     2405.53      2348.5      2349.5     2433.89     2450.95     2430.06     2388.68     2437.59     2482.03     2457.22     2402.65     2416.83     2438.25     2466.52     2504.84     2499.31        2488     2484.67     2496.01     2509.74     2469.02     2444.11     2469.07      2522.8     2581.73     2607.53     2586.32     2572.85     2617.92     2630.79        1e31        1e31        1e31        1e31        1e31        1e31        1e31        1e31        1e31        1e31        1e31        1e31        1e31        1e31        1e31        1e31        1e31        1e31        1e31        1e31        1e31        1e31        1e31        1e31        1e31        1e31        1e31        1e31        1e31        1e31        1e31        1e31        1e31        1e31        1e31        1e31        1e31        1e31        1e31        1e31        1e31        1e31        1e31        1e31        1e31        1e31        1e31        1e31        1e31        1e31        1e31        1e31        1e31        1e31        1e31        1e31        1e31        1e31        1e31        1e31        1e31        1e31        1e31        1e31        1e31
1e31        1e31        1e31        1e31        1e31        1e31        1e31        1e31        1e31        1e31        1e31        1e31        1e31        1e31        1e31        1e31        1e31        1e31        1e31        1e31        1e31        1e31        1e31        1e31        1e31        1e31        1e31        1e31        1e31     2254.34     2214.23     2172.33     2138.34     2103.81     2085.96     2069.27     2055.31     2044.55     2025.28     2010.23     2029.31     2041.59     2052.52     2061.58     2072.78     2096.51     2126.55     2168.62        2201     2239.56     2278.44     2308.58     2374.65     2432.86        1e31        1e31        1e31        1e31        1e31        1e31        1e31        1e31        1e31        1e31     2464.76     2419.02     2403.21     2380.32     2316.81     2261.92     2196.53     2143.29     2070.43     2043.43     2033.27      2030.8     2031.89     2048.74     2075.14     2113.56     2159.93     2204.63     2259.47     2316.79     2366.31     2427.55     2483.68     2474.77     2404.68     2367.72     2308.71     2263.01     2216.19     2181.11     2143.21     2135.11     2074.08     2040.42      2017.9     1987.56     1971.16     1953.15     1928.58     1912.02     1901.97     1898.47     1918.74     1939.29     1959.87     1992.87     2024.78     2065.71     2109.87     2161.65      2206.9      2245.9     2291.82     2356.13     2428.32     2477.44     2443.08     2401.99     2353.71     2332.39     2324.67     2321.48     2314.88        2307     2290.89     2258.22     2221.53      2201.6     2191.38     2181.16     2169.54     2151.47     2140.27     2128.24     2129.96      2129.8     2140.38     2154.11     2171.08     2189.98      2197.5     2206.02      2221.9     2243.58      2267.9     2280.13     2285.78     2291.02     2315.34      2330.5     2290.63     2301.39     2371.75     2371.42     2362.95     2323.95     2378.85     2402.72     2422.17     2369.63     2341.78     2365.15     2415.86     2438.48     2433.17     2435.01     2429.17     2441.42     2448.82     2410.13     2389.03     2422.93     2481.55      2542.3     2545.05      2516.8     2508.51      2546.8     2576.14        2589        1e31        1e31        1e31        1e31        1e31        1e31        1e31        1e31        1e31        1e31        1e31        1e31        1e31        1e31        1e31        1e31        1e31        1e31        1e31        1e31        1e31        1e31        1e31        1e31        1e31        1e31        1e31        1e31        1e31        1e31        1e31        1e31        1e31        1e31        1e31        1e31        1e31        1e31        1e31        1e31        1e31        1e31        1e31        1e31        1e31        1e31        1e31        1e31        1e31        1e31        1e31        1e31        1e31        1e31        1e31        1e31        1e31        1e31        1e31        1e31        1e31        1e31        1e31        1e31
1e31        1e31        1e31        1e31        1e31        1e31        1e31        1e31        1e31        1e31        1e31        1e31        1e31        1e31        1e31        1e31        1e31        1e31        1e31        1e31        1e31        1e31        1e31        1e31        1e31        1e31        1e31        1e31        1e31      2227.9      2189.7     2145.24     2103.32     2074.94     2071.36     2059.26     2038.55     2014.05     1999.06     2001.09     1999.02     2016.34     2029.73     2040.36     2051.43     2070.83     2100.11     2139.43     2180.07      2219.7     2257.15     2286.82     2346.39     2419.96     2480.31        1e31        1e31        1e31        1e31        1e31        1e31        1e31        1e31     2476.85     2451.17     2421.01     2418.38     2396.13     2332.63     2284.46     2228.24     2159.91     2095.83     2056.54     2038.66     2033.36     2028.79     2035.81     2055.14     2082.47     2125.64      2182.9     2238.77     2287.02     2336.96     2391.37     2454.94     2495.33     2434.85     2379.29     2338.05      2288.3     2210.85     2158.74     2129.84     2121.29     2079.69     2044.37     2016.27     1994.94     1982.86      1962.4      1937.6     1913.64     1899.08      1887.8     1890.43     1915.28     1942.68     1971.08     1999.68     2037.13     2080.52      2125.4     2158.29     2204.97     2273.42     2339.36     2399.79     2436.81     2484.21     2449.35     2409.66     2349.68     2312.36      2305.4     2297.71     2284.99     2272.03     2244.54     2212.08     2194.68     2184.22     2173.95     2157.13     2141.82     2130.46     2110.83     2106.96     2111.58     2117.03     2127.31     2138.42     2153.32     2167.16     2175.67        2191     2207.43     2218.63     2229.93     2234.36      2249.9     2256.37     2261.23     2234.27     2265.46     2299.52     2287.11     2297.19     2256.75     2315.31     2333.41     2351.16     2338.42      2289.1     2318.93     2361.57     2366.78     2381.22     2383.17     2369.44     2387.47     2393.57     2361.13     2341.73     2380.74     2454.24     2489.54     2499.88     2483.69     2449.59     2476.55     2493.53     2547.76     2575.33        1e31        1e31        1e31        1e31        1e31        1e31        1e31        1e31        1e31        1e31        1e31        1e31        1e31        1e31        1e31        1e31        1e31        1e31        1e31        1e31        1e31        1e31        1e31        1e31        1e31        1e31        1e31        1e31        1e31        1e31        1e31        1e31        1e31        1e31        1e31        1e31        1e31        1e31        1e31        1e31        1e31        1e31        1e31        1e31        1e31        1e31        1e31        1e31        1e31        1e31        1e31        1e31        1e31        1e31        1e31        1e31        1e31        1e31        1e31        1e31        1e31        1e31        1e31
1e31        1e31        1e31        1e31        1e31        1e31        1e31        1e31        1e31        1e31        1e31        1e31        1e31        1e31        1e31        1e31        1e31        1e31        1e31        1e31        1e31        1e31        1e31        1e31        1e31        1e31        1e31        1e31        1e31      2196.4     2161.01     2110.35     2074.34     2061.97     2060.77     2046.83     2026.08     2007.84     1999.05        2000     1996.51     1996.41     2003.29     2021.81     2031.72     2048.97     2075.81     2114.91     2158.46     2198.54     2239.15     2269.55     2315.23     2394.91     2457.65        2484        1e31        1e31        1e31        1e31        1e31        1e31     2525.99     2465.98     2433.99        2405     2418.84     2404.26     2350.36     2317.02     2244.86     2183.19     2134.35     2093.83     2070.14     2055.99     2028.27     2026.75     2034.63     2051.53     2081.95     2141.55     2202.84     2260.82     2300.61     2369.33     2441.39      2498.8     2450.27      2392.1     2333.29     2306.51     2230.97        2159     2130.57     2113.27     2095.44     2057.15     2028.99     2012.69     2004.61     1984.42     1955.46     1920.79     1897.15     1882.89     1877.35     1893.27     1919.31     1944.22     1971.99     2003.65      2042.2     2080.15     2129.33     2196.53     2250.93     2302.78     2343.87      2398.8      2453.7     2488.26      2448.8     2406.74     2309.94     2282.81     2283.03     2272.42     2255.15     2226.05     2195.29     2182.76     2175.98     2165.73      2150.6     2133.74      2116.9     2096.78     2092.05     2092.41     2097.14     2102.11        2100     2107.06      2118.5     2127.29     2138.42      2152.1     2162.91     2168.04     2169.67     2175.39     2187.54     2181.27     2177.36        2204     2223.29     2220.88     2230.32     2202.91     2260.55     2262.72     2278.19     2275.02     2245.38     2260.89     2308.26     2306.89     2322.82     2333.53     2315.51     2333.33     2337.43     2307.49        2293     2363.31     2435.42     2434.92     2442.49     2439.28     2398.23     2407.89      2447.1     2475.05     2536.01     2549.64        1e31        1e31        1e31        1e31        1e31        1e31        1e31        1e31        1e31        1e31        1e31        1e31        1e31        1e31        1e31        1e31        1e31        1e31        1e31        1e31        1e31        1e31        1e31        1e31        1e31        1e31        1e31        1e31        1e31        1e31        1e31        1e31        1e31        1e31        1e31        1e31        1e31        1e31        1e31        1e31        1e31        1e31        1e31        1e31        1e31        1e31        1e31        1e31        1e31        1e31        1e31        1e31        1e31        1e31        1e31        1e31        1e31        1e31        1e31        1e31        1e31        1e31
1e31        1e31        1e31        1e31        1e31        1e31        1e31        1e31        1e31        1e31        1e31        1e31        1e31        1e31        1e31        1e31        1e31        1e31        1e31        1e31        1e31        1e31        1e31        1e31        1e31        1e31        1e31        1e31        1e31     2180.86     2145.17     2095.85     2061.91      2057.2     2055.61     2051.17     2037.25     2019.82     2012.14     2005.84     1996.64     1996.66     1996.74     2008.61     2017.78     2030.68     2056.13     2091.58     2133.93     2180.67     2221.36     2253.76     2290.63     2357.73     2429.42     2463.14     2487.84        1e31        1e31        1e31        1e31     2561.89     2499.55     2450.37     2427.78     2395.52     2407.65     2394.08     2350.86     2321.13     2271.99     2232.64     2198.99     2156.79     2131.36     2105.09     2040.68     2014.87     2018.47     2028.71     2048.26     2094.19     2162.67        2231     2287.54     2345.83     2415.57     2479.33     2464.46     2409.31     2371.67      2308.8     2242.27     2166.72     2138.67     2117.66     2104.76     2079.48      2040.5     2029.42     2031.33     2022.74     1977.39     1932.23     1899.44     1879.84     1867.78     1874.06     1889.77     1915.53     1942.31     1969.73     2000.56     2044.39     2094.17      2158.6     2209.51     2249.94     2301.65      2360.8     2426.32      2483.2     2487.23     2403.46     2300.28     2267.79      2265.2     2253.48      2231.4     2200.76     2178.57     2168.91      2163.6     2157.17     2148.19     2129.91     2106.35      2088.8     2080.64     2072.54     2071.87     2074.54     2067.54     2062.25     2067.81     2074.56     2086.89     2094.43     2099.62     2100.67     2102.55     2109.38     2113.18     2121.84     2129.55     2154.94     2159.36     2156.15     2165.55     2148.73     2183.31     2183.97     2200.51     2211.31     2194.72     2206.26     2250.01     2239.82     2263.79     2270.42     2259.89     2268.83     2280.71     2253.25     2254.61     2326.22     2385.56     2377.38      2377.5     2383.91     2351.13     2350.59     2386.82     2431.74     2489.66     2484.43     2492.54     2540.34        1e31        1e31        1e31        1e31        1e31        1e31        1e31        1e31        1e31        1e31        1e31        1e31        1e31        1e31        1e31        1e31        1e31        1e31        1e31        1e31        1e31        1e31        1e31        1e31        1e31        1e31        1e31        1e31        1e31        1e31        1e31        1e31        1e31        1e31        1e31        1e31        1e31        1e31        1e31        1e31        1e31        1e31        1e31        1e31        1e31        1e31        1e31        1e31        1e31        1e31        1e31        1e31        1e31        1e31        1e31        1e31        1e31        1e31        1e31        1e31
1e31        1e31        1e31        1e31        1e31        1e31        1e31        1e31        1e31        1e31        1e31        1e31        1e31        1e31        1e31        1e31        1e31        1e31        1e31        1e31        1e31        1e31        1e31        1e31        1e31        1e31        1e31        1e31        1e31        1e31     2145.23     2103.84     2067.64      2060.4     2064.32     2062.38     2050.77     2041.88     2044.03      2037.4     2010.88     1996.29     1997.37     2000.88     2006.04     2016.23     2037.45     2068.88     2111.78     2161.34      2201.3        2240     2276.18     2325.76      2405.2     2439.57     2469.93     2493.23     2513.96     2535.32     2553.95     2536.23      2471.9     2430.72     2412.61     2387.83      2393.7     2367.51     2351.15     2330.09     2279.26     2257.78     2230.56     2213.26      2177.1     2150.98      2054.5     2010.79     1999.54     2002.84     2025.69     2068.64     2122.64     2192.22     2253.59      2314.6     2389.77     2464.06     2464.84     2401.18     2349.11     2306.36     2251.87     2187.61     2157.47     2133.24     2126.28     2119.08     2073.53     2052.32     2057.93     2057.48     2014.66     1955.86     1909.66     1886.22      1866.8     1856.78     1865.48     1883.03     1910.47     1932.17     1962.93     1999.51     2044.94     2109.68     2149.42     2213.06     2274.46     2333.17     2390.24     2438.95     2484.63     2394.42     2312.15     2275.48     2258.84        2253     2230.53     2190.98     2163.97     2157.21     2152.53     2148.71     2141.82     2126.25     2104.24      2083.5     2067.76      2057.8     2056.31     2050.95     2045.08     2033.19     2032.61      2031.6     2039.39     2047.46     2050.02     2054.61     2056.93      2058.1     2066.13     2074.36     2083.66     2102.54     2107.53     2105.72     2105.94     2098.89     2116.25     2121.09     2129.48      2137.8     2134.87     2149.67     2176.36     2166.89     2188.23     2202.85     2201.58     2215.88     2223.63     2188.59      2230.5     2305.03     2331.23     2313.33     2329.78     2323.28     2299.38     2294.56     2322.13     2413.14     2442.14     2427.65     2438.59     2484.67     2525.12     2540.77     2568.54      2571.5     2584.48     2617.38        1e31        1e31        1e31        1e31        1e31        1e31        1e31        1e31        1e31        1e31        1e31        1e31        1e31        1e31        1e31        1e31        1e31        1e31        1e31        1e31        1e31        1e31        1e31        1e31        1e31        1e31        1e31        1e31        1e31        1e31        1e31        1e31        1e31        1e31        1e31        1e31        1e31        1e31        1e31        1e31        1e31        1e31        1e31        1e31        1e31        1e31        1e31        1e31        1e31        1e31        1e31        1e31        1e31        1e31
1e31        1e31        1e31        1e31        1e31        1e31        1e31        1e31        1e31        1e31        1e31        1e31        1e31        1e31        1e31        1e31        1e31        1e31        1e31        1e31        1e31        1e31        1e31        1e31        1e31        1e31        1e31        1e31        1e31        1e31     2171.03     2127.14     2100.91     2085.64     2083.46     2076.02     2062.57     2065.49     2073.41     2065.24     2040.45     2020.76     2010.47     1996.69      1997.5     2006.98     2022.27     2049.02     2088.93     2141.01     2185.92     2228.07      2262.6     2306.67      2379.1     2417.92     2454.63     2479.69      2504.7      2526.2      2545.8     2515.05     2441.99      2407.2     2387.58     2364.67     2371.51     2357.95     2345.72     2310.16     2254.69     2227.29     2196.94     2195.82     2178.48     2174.72     2085.46     2025.31     2002.38     1995.39     2011.36     2054.77     2103.97     2169.53     2241.22     2314.73     2386.35     2460.62     2468.56     2395.72     2345.35     2302.06     2272.88     2222.25     2175.03     2164.64     2163.25     2155.22     2123.23     2107.55     2100.84     2078.68      2046.3     1993.33     1930.22     1894.48     1870.51     1851.24     1851.57      1858.9     1872.11     1894.33     1919.39     1952.85     2001.76      2052.3     2120.38     2194.15     2254.45      2301.2     2335.36     2389.41     2450.81      2395.7     2323.79     2289.12     2283.59     2281.67     2260.68     2222.75     2177.78     2156.72     2148.71      2147.8     2142.59     2125.58     2102.73     2078.35     2058.34     2052.81     2049.92     2038.11     2027.55     2014.66     2012.88     2006.77     2007.32     2010.76     2015.55     2014.83     2020.46      2019.1        2030     2037.79      2042.5     2055.86     2054.42     2056.19     2057.54     2057.56     2062.95     2071.33      2077.9     2075.45     2086.65     2091.34     2098.72     2102.66     2119.18     2133.38     2136.46     2166.59     2161.08     2134.27      2202.8     2255.43     2263.98     2249.75     2278.65     2254.59     2238.16     2241.98     2303.65     2359.84        2374     2368.83     2392.13     2426.25     2460.97     2478.55     2505.73     2499.83     2525.89     2581.07     2631.04        1e31        1e31        1e31        1e31        1e31        1e31        1e31        1e31        1e31        1e31        1e31        1e31        1e31        1e31        1e31        1e31        1e31        1e31        1e31        1e31        1e31        1e31        1e31        1e31        1e31        1e31        1e31        1e31        1e31        1e31        1e31        1e31        1e31        1e31        1e31        1e31        1e31        1e31        1e31        1e31        1e31        1e31        1e31        1e31        1e31        1e31        1e31        1e31        1e31        1e31        1e31        1e31        1e31
1e31        1e31        1e31        1e31        1e31        1e31        1e31        1e31        1e31        1e31        1e31        1e31        1e31        1e31        1e31        1e31        1e31        1e31        1e31        1e31        1e31        1e31        1e31        1e31        1e31        1e31        1e31        1e31        1e31        1e31     2185.17     2151.82     2128.63     2121.06     2112.92     2104.65     2090.96     2103.59     2106.62      2080.5      2065.7     2043.67      2017.4     1997.92     1995.31     1999.55     2013.99      2037.4     2072.69     2121.47      2176.1     2215.27     2253.03     2293.22     2354.94     2402.07     2437.52     2466.21     2492.45     2515.84     2533.01      2497.4     2416.24     2377.14     2353.68     2341.78     2339.91     2345.36     2331.17     2279.98     2232.03     2199.13     2160.97     2149.71     2158.46     2178.04     2127.88     2045.91      2023.3     1995.16     1997.04     2029.52     2070.23      2133.6     2217.74     2290.91     2368.54     2447.32     2487.05     2405.78     2376.61     2313.41     2285.68     2252.39     2222.65     2187.42     2181.02     2166.85     2150.72     2163.27     2143.52     2091.76     2071.23     2027.19     1968.59     1917.09     1880.36     1859.33     1835.93     1837.39     1849.47     1860.23     1884.45     1921.02     1958.67     2017.71     2085.55     2148.31     2208.19        2255     2288.25     2352.82     2420.23      2426.8     2336.19     2318.88     2312.53     2308.94     2297.93     2266.75     2221.25     2170.26     2147.51     2144.38     2145.53     2134.66     2110.68     2081.78     2061.17     2051.15        2041      2029.6     2018.27     2009.73     2002.99     1998.65     1996.27     1994.47     1992.08     1993.35     1993.49     1990.38     1990.87     2001.44     1995.17     1996.33      2001.2     2001.26     2004.02     2009.09      2009.1     2015.73     2019.92     2011.49     2015.88     2034.38     2036.13     2041.32     2061.28     2070.88     2075.51     2100.91     2103.54     2096.55     2158.23      2187.9     2193.67     2178.13     2228.67     2208.98     2180.89     2194.68     2268.38     2320.13     2326.08     2316.76     2332.85     2374.43     2404.97     2421.16     2440.55     2434.22     2473.75     2535.79     2585.64     2626.75        1e31        1e31        1e31        1e31        1e31        1e31        1e31        1e31        1e31        1e31        1e31        1e31        1e31        1e31        1e31        1e31        1e31        1e31        1e31        1e31        1e31        1e31        1e31        1e31        1e31        1e31        1e31        1e31        1e31        1e31        1e31        1e31        1e31        1e31        1e31        1e31        1e31        1e31        1e31        1e31        1e31        1e31        1e31        1e31        1e31        1e31        1e31        1e31        1e31        1e31        1e31        1e31
1e31        1e31        1e31        1e31        1e31        1e31        1e31        1e31        1e31        1e31        1e31        1e31        1e31        1e31        1e31        1e31        1e31        1e31        1e31        1e31        1e31        1e31        1e31        1e31        1e31        1e31        1e31        1e31        1e31        1e31     2205.64     2178.55     2158.81     2147.11     2139.29     2135.07     2123.83     2140.11     2138.54     2102.84     2079.34     2052.13     2019.05     1998.43     1995.23     1997.46     2010.33     2030.55     2065.63     2113.24     2160.77     2202.54      2238.2        2277     2333.85     2389.08     2422.12     2456.68     2482.43     2508.45     2523.14     2491.81     2396.59     2343.58     2329.72     2318.03      2322.5      2327.9     2319.37      2259.2     2213.76     2170.95     2125.71     2104.64     2106.62     2140.08     2149.45     2087.21     2047.67     2010.18     1978.65     2000.69      2035.3     2094.12     2175.49     2266.92     2345.19     2403.65     2452.81     2433.47     2382.05     2356.34     2310.41      2275.8     2258.12     2214.53     2198.67     2181.59     2167.32     2182.86      2160.6      2108.5     2088.97     2069.54     2008.37     1950.93     1907.67     1868.11     1834.03      1825.8     1826.98     1835.84     1863.73     1897.39     1932.31     1977.56     2034.62      2105.8     2172.94     2196.17     2261.61     2320.59     2387.54     2457.82     2357.46     2347.74     2346.03     2339.09      2329.3     2317.94     2297.39     2225.66     2167.86     2147.76     2148.44     2146.25     2125.52     2106.35     2084.95     2068.01     2052.77     2041.88      2034.2     2025.36     2010.31     2002.57     1996.16     1989.21     1984.59     1988.54     1976.12     1973.45     1972.22      1973.6     1967.21     1956.47     1959.61     1963.06     1973.24     1974.07     1960.71     1956.07     1960.27     1971.04     1967.54     1979.95     1984.68     1995.19     1996.92      2011.3     2020.34     2035.45      2044.6     2048.79     2081.43     2109.22     2122.78     2124.71        2179     2156.09     2147.53     2170.51     2244.52     2270.56     2277.24     2273.92     2287.83     2314.96     2347.47     2368.33     2384.86     2372.54     2426.35     2493.96     2530.32     2569.12     2633.49        1e31        1e31        1e31        1e31        1e31        1e31        1e31        1e31        1e31        1e31        1e31        1e31        1e31        1e31        1e31        1e31        1e31        1e31        1e31        1e31        1e31        1e31        1e31        1e31        1e31        1e31        1e31        1e31        1e31        1e31        1e31        1e31        1e31        1e31        1e31        1e31        1e31        1e31        1e31        1e31        1e31        1e31        1e31        1e31        1e31        1e31        1e31        1e31        1e31        1e31        1e31
1e31        1e31        1e31        1e31        1e31        1e31        1e31        1e31        1e31        1e31        1e31        1e31        1e31        1e31        1e31        1e31        1e31        1e31        1e31        1e31        1e31        1e31        1e31        1e31        1e31        1e31        1e31        1e31        1e31        1e31     2228.53     2203.91     2191.04     2172.57      2163.2     2165.86     2160.74     2168.85     2147.71     2107.96     2079.89     2049.36     2017.12     1997.78     1995.14      1997.2     2009.96     2029.28     2063.32     2116.22     2155.87     2191.04     2221.78     2252.11     2299.15     2360.63     2413.82     2453.56     2479.72     2502.71     2505.77     2452.71     2385.24     2331.44     2327.85        2309     2309.65     2307.41     2298.98     2244.75     2208.95      2153.8     2101.21     2070.22     2067.82     2098.03     2131.79      2129.3     2078.72     2023.15     1975.05     1978.53     2016.92     2078.57     2145.48     2247.26     2306.22     2347.72     2415.01     2460.93      2430.9     2381.62     2363.15     2329.99     2267.71     2237.98     2217.07     2205.13     2195.46     2180.81     2181.31     2130.24     2106.67      2095.1     2044.84     1995.38     1939.53     1889.64     1840.76     1820.24     1816.55     1823.75     1844.35     1873.77     1911.08     1953.82        2001     2061.04     2111.06     2165.08     2223.96     2292.53     2363.25     2421.93     2392.14     2362.46     2362.87     2363.72     2361.59     2351.57     2339.88     2264.29     2212.69     2191.85     2162.01     2153.15     2154.32     2147.02     2121.19     2093.82     2083.17     2073.46     2061.33     2050.24     2035.23     2020.02     2010.19     2005.36     1992.56     1985.43     1969.72     1964.68     1965.03     1961.03     1950.01     1945.36     1944.54     1942.86     1949.47     1946.69     1929.09     1919.18     1923.44     1929.48     1935.54     1936.06     1936.21     1952.78     1947.16      1955.1     1964.65     1966.36        1974     2000.58     2027.09     2041.66     2052.82     2076.16     2103.42     2110.13     2099.86     2143.71     2192.66     2211.97     2221.98     2222.07     2241.57     2274.39     2298.18     2310.17     2330.86     2323.69     2389.81     2435.81      2474.2     2533.64     2597.54        1e31        1e31        1e31        1e31        1e31        1e31        1e31        1e31        1e31        1e31        1e31        1e31        1e31        1e31        1e31        1e31        1e31        1e31        1e31        1e31        1e31        1e31        1e31        1e31        1e31        1e31        1e31        1e31        1e31        1e31        1e31        1e31        1e31        1e31        1e31        1e31        1e31        1e31        1e31        1e31        1e31        1e31        1e31        1e31        1e31        1e31        1e31        1e31        1e31        1e31        1e31
1e31        1e31        1e31        1e31        1e31        1e31        1e31        1e31        1e31        1e31        1e31        1e31        1e31        1e31        1e31        1e31        1e31        1e31        1e31        1e31        1e31        1e31        1e31        1e31        1e31        1e31        1e31        1e31        1e31        1e31     2243.71     2221.04     2209.61     2202.74     2197.03     2190.95     2179.91     2170.17      2135.4     2103.38      2076.2     2042.36     2010.25     1996.97     1995.07     1995.12     2007.09        2027     2066.51     2112.74      2149.6     2179.55     2206.04     2232.09      2261.9     2311.49     2382.34     2448.88     2476.98     2466.45     2453.36     2404.36     2357.03      2321.1     2335.82      2331.1     2301.79      2298.3     2285.31     2232.65     2183.16     2138.91     2077.56     2041.16     2034.67      2067.3     2116.11     2151.69     2082.76     2025.91     1968.23     1968.94     2008.19     2070.78     2125.93     2197.09     2250.76     2332.78     2409.35     2396.79     2390.05     2410.99     2412.34     2380.56      2312.2     2258.55     2231.95     2225.69     2214.37     2182.19     2173.06     2143.84     2124.03     2103.75     2078.03     2042.02     1976.63      1911.1     1865.33     1829.29     1811.85     1810.39     1821.82     1855.71     1889.08      1928.8      1975.9     2024.53     2077.47     2135.22     2209.96     2278.72      2317.7     2367.35     2416.45     2383.38     2377.94     2374.97     2379.82      2372.4     2364.12     2318.94     2278.01     2234.25     2209.76     2186.59     2179.66     2176.52     2163.29     2134.45     2116.07     2098.54     2096.07     2084.52     2068.97     2053.75     2039.07     2024.13     2010.65     1998.01     1980.42     1971.48     1959.06     1955.43     1949.11      1942.6     1939.05     1929.64     1933.79     1929.17     1913.22     1905.92     1901.95     1901.71     1915.21     1912.75     1904.41      1917.2     1912.25     1921.61     1924.64     1935.25     1948.33     1946.33     1974.61     1992.08     1997.18     2024.79      2042.4     2052.67     2042.34     2097.83     2128.71     2150.44     2175.84     2169.64     2199.65     2233.91     2257.15     2257.63     2271.28      2285.9     2340.58     2395.32     2439.24     2506.44     2555.37      2573.2        1e31        1e31        1e31        1e31        1e31        1e31        1e31        1e31        1e31        1e31        1e31        1e31        1e31        1e31        1e31        1e31        1e31        1e31        1e31        1e31        1e31        1e31        1e31        1e31        1e31        1e31        1e31        1e31        1e31        1e31        1e31        1e31        1e31        1e31        1e31        1e31        1e31        1e31        1e31        1e31        1e31        1e31        1e31        1e31        1e31        1e31        1e31        1e31        1e31        1e31
1e31        1e31        1e31        1e31        1e31        1e31        1e31        1e31        1e31        1e31        1e31        1e31        1e31        1e31        1e31        1e31        1e31        1e31        1e31        1e31        1e31        1e31        1e31        1e31        1e31        1e31        1e31        1e31        1e31        1e31     2264.92     2240.59     2235.42     2229.45     2199.86     2182.25      2169.2     2160.56     2131.65     2095.23        2072     2036.66     2006.38     1996.05     1995.03     1995.11     2004.86     2026.13     2061.93     2108.77     2145.79     2176.62     2202.98     2230.33     2250.56     2285.05     2349.84      2422.5     2433.93     2393.11     2398.98     2357.36     2318.71      2283.4     2295.58     2360.73     2321.72     2282.04     2264.73     2214.24     2163.14     2113.13     2054.25     2008.14     2001.55      2032.7     2091.11     2114.56     2042.76      1997.5     1957.85     1966.54     2004.05     2062.28     2112.07     2181.85     2248.37     2326.06     2362.55     2326.12      2323.3     2362.61     2373.76     2361.42     2355.02     2322.82     2262.57     2230.92     2219.78     2203.41     2170.23     2140.99     2120.69     2113.36     2098.65     2074.73     2010.76     1946.54     1885.07     1851.17     1818.46     1798.95     1804.85     1831.26     1865.69     1905.33     1948.45     2004.55     2063.11      2130.4     2190.84     2230.23     2272.27     2333.57     2395.88     2425.39     2393.88     2384.24     2391.72     2391.14     2381.03     2339.35     2302.15     2281.86     2277.94     2251.36     2209.44     2195.09     2199.58     2193.55     2150.65     2127.99     2115.52      2109.9     2097.45     2082.58     2070.33     2052.31      2037.5     2026.92     2008.97     1999.55     1990.13     1980.88     1972.81     1965.04     1958.99     1947.91     1923.94     1915.91     1905.88     1902.91     1897.09     1895.84      1897.3      1889.2     1881.35     1881.13     1883.85     1890.06     1889.97     1915.03     1921.55     1914.09     1928.42     1941.91     1948.24     1968.46     1977.56     1999.46     1990.97     2038.14     2062.65     2102.53     2119.51     2117.63     2145.64      2192.8     2215.06     2195.85     2208.31     2242.07     2309.05     2350.87     2416.93     2470.25     2482.58     2518.81        1e31        1e31        1e31        1e31        1e31        1e31        1e31        1e31        1e31        1e31        1e31        1e31        1e31        1e31        1e31        1e31        1e31        1e31        1e31        1e31        1e31        1e31        1e31        1e31        1e31        1e31        1e31        1e31        1e31        1e31        1e31        1e31        1e31        1e31        1e31        1e31        1e31        1e31        1e31        1e31        1e31        1e31        1e31        1e31        1e31        1e31        1e31        1e31        1e31        1e31
1e31        1e31        1e31        1e31        1e31        1e31        1e31        1e31        1e31        1e31        1e31        1e31        1e31        1e31        1e31        1e31        1e31        1e31        1e31        1e31        1e31        1e31        1e31        1e31        1e31        1e31        1e31        1e31        1e31        1e31      2321.1     2284.62     2258.42     2228.94     2195.62      2175.3     2167.77     2161.15     2128.61     2086.19     2060.49     2029.39     2003.97     1995.95     1994.99      1995.1     2006.61     2028.94     2068.93      2108.4      2144.5     2173.19     2196.91     2221.77     2241.17     2267.72     2323.98     2375.23     2378.82      2334.7     2328.89      2314.6     2262.07     2248.06     2263.48     2292.85     2291.57     2273.07     2224.44     2184.88     2136.17     2078.46     2019.26     1985.31     1982.82     1998.63      2053.3     2025.78     1979.61     1958.61      1949.9     1964.01     2000.16     2056.03     2104.52     2165.45     2239.02     2301.02     2316.98     2271.94      2266.6     2308.94     2323.64     2301.57     2308.17     2334.35     2280.11     2237.02     2220.74     2216.13     2201.35     2156.06     2125.42     2117.73     2110.99     2099.35     2049.24     1981.21      1922.4     1873.72     1829.96     1798.27     1795.23     1811.58     1842.97     1887.13     1928.05     1980.31     2035.54     2095.43     2148.09      2192.5     2255.22     2320.23     2389.56     2449.32     2445.43     2429.55     2426.31     2427.65     2424.55     2400.97     2368.34     2343.64     2310.22     2283.24     2252.55     2216.22     2213.78     2235.53     2193.94     2147.54     2123.89     2112.68     2102.63      2094.9     2088.85     2077.06     2070.71     2065.81     2058.61     2045.95     2033.22     2026.22     2016.73     2001.91      1991.7     1978.39     1966.57     1953.86     1942.99     1931.51      1919.8     1911.31     1894.63     1882.32     1876.96     1873.02     1872.78     1873.69     1881.38     1895.06     1896.44      1886.3     1898.06     1904.96     1915.28     1917.88     1922.78     1935.74      1940.6     1969.01     1996.28      2037.9     2065.03     2062.94     2094.76     2149.37     2164.15     2133.96     2142.25     2221.01     2258.82     2315.26     2381.52     2405.23      2424.8     2461.58     2519.92        1e31        1e31        1e31        1e31        1e31        1e31        1e31        1e31        1e31        1e31        1e31        1e31        1e31        1e31        1e31        1e31        1e31        1e31        1e31        1e31        1e31        1e31        1e31        1e31        1e31        1e31        1e31        1e31        1e31        1e31        1e31        1e31        1e31        1e31        1e31        1e31        1e31        1e31        1e31        1e31        1e31        1e31        1e31        1e31        1e31        1e31        1e31        1e31        1e31
1e31        1e31        1e31        1e31        1e31        1e31        1e31        1e31        1e31        1e31        1e31        1e31        1e31        1e31        1e31        1e31        1e31        1e31        1e31        1e31        1e31        1e31        1e31        1e31        1e31        1e31        1e31        1e31        1e31        1e31     2325.82     2310.22     2258.41     2231.53     2210.88     2190.44     2175.56     2167.92     2114.39     2079.93     2054.01     2028.19     2004.55      1995.8     1994.94     1995.08     2008.96     2032.22     2073.15     2109.13     2141.64     2168.97     2187.51     2209.69     2232.33      2255.4     2302.89     2319.48     2309.21     2274.27     2259.05     2261.92     2219.23     2205.96     2209.36     2226.63     2214.29     2196.27     2186.26     2151.08     2099.73     2051.97     2001.05      1979.9     1972.52     1980.26     2020.89     1995.17     1962.52     1946.16     1943.95      1956.3     1986.83     2041.63     2094.03     2136.93      2195.2     2227.69     2265.57      2242.7     2211.79     2249.68     2266.65     2245.61     2256.06      2283.3     2300.37     2252.83     2230.75      2227.3     2224.91     2208.17     2173.59     2135.61     2144.99     2142.05     2083.51     2020.83     1954.53     1905.25     1850.16     1803.72     1786.78      1801.3     1825.12     1859.87     1913.85     1963.54     2005.65     2064.83     2129.46     2193.97     2249.97      2306.9     2370.26      2439.4     2473.94     2459.23     2456.71     2452.14     2438.65     2413.96     2415.34      2426.4     2331.89     2310.51     2281.98     2237.29     2230.54      2274.2      2249.8     2183.88     2145.93     2135.35     2139.67      2129.8      2120.1      2117.9     2106.12     2105.67     2101.07     2086.35     2084.71      2081.3      2076.9     2066.55     2047.22     2032.01     2020.23     2005.28     1989.01      1971.2     1952.88     1941.92     1926.54     1914.87     1904.87     1885.45     1873.13     1865.67     1871.16     1874.55     1866.11     1859.36      1869.3     1875.64     1877.92     1871.18     1875.19     1880.76     1893.44     1908.77     1933.73     1968.08     2007.04     2005.66     2051.97     2098.77     2105.53      2085.7     2135.23     2178.77     2227.98     2295.15     2338.83     2346.34      2379.2     2426.33     2495.18        1e31        1e31        1e31        1e31        1e31        1e31        1e31        1e31        1e31        1e31        1e31        1e31        1e31        1e31        1e31        1e31        1e31        1e31        1e31        1e31        1e31        1e31        1e31        1e31        1e31        1e31        1e31        1e31        1e31        1e31        1e31        1e31        1e31        1e31        1e31        1e31        1e31        1e31        1e31        1e31        1e31        1e31        1e31        1e31        1e31        1e31        1e31        1e31        1e31
1e31        1e31        1e31        1e31        1e31        1e31        1e31        1e31        1e31        1e31        1e31        1e31        1e31        1e31        1e31        1e31        1e31        1e31        1e31        1e31        1e31        1e31        1e31        1e31        1e31        1e31        1e31        1e31        1e31     2295.74     2288.08     2287.51     2270.69     2241.99     2216.77     2198.78     2181.88     2148.05     2101.47     2077.67     2050.81     2025.48     2003.93     1995.65     1994.87     1995.46      2011.6     2034.48     2071.01     2105.87     2135.23      2162.6     2182.09     2199.15     2220.45     2234.61     2261.14     2246.85     2239.35     2221.29      2198.7     2203.26     2174.88      2151.7     2154.14     2154.93        2146      2129.9     2118.85     2097.16     2067.25     2028.05     1981.73     1962.67     1954.02     1965.19     1982.73     1988.83      1962.5     1931.94     1932.82     1946.85     1981.13     2034.24     2082.72     2109.48     2126.78     2151.92     2187.06     2181.82     2153.17     2184.18     2203.45      2188.7     2201.54     2233.71     2261.85     2288.77     2274.11     2261.97     2264.24     2265.89     2245.21     2212.11     2187.79      2168.2     2120.75     2054.44     1999.07     1938.67      1875.8     1817.51     1781.48     1791.38     1806.09     1837.63     1893.41      1947.4      2000.8     2054.56     2113.26     2163.61     2216.17     2280.37     2352.34     2416.69     2401.06     2403.74      2432.6     2442.59     2430.66     2395.25     2396.63     2412.23     2391.23     2338.14     2294.89     2265.29     2299.27     2300.49     2263.26        2204     2158.31     2159.69     2167.36     2167.19     2166.39     2172.22     2168.16      2153.8     2139.45     2129.26     2131.07     2124.53     2121.87     2125.06     2121.86     2101.25     2080.26     2063.58     2045.55     2025.21      2007.7     1991.38     1975.25     1963.65     1951.67     1930.87     1910.36     1885.83     1862.73     1855.68     1848.88      1843.7     1842.92      1846.6     1847.96     1843.33     1844.02     1855.06     1848.29     1860.78     1877.94     1911.01     1938.78     1944.02     2005.65     2044.04     2046.99     2052.49     2109.84     2147.04     2208.93     2262.15     2277.88     2282.51     2327.17     2401.55     2452.17      2513.2        1e31        1e31        1e31        1e31        1e31        1e31        1e31        1e31        1e31        1e31        1e31        1e31        1e31        1e31        1e31        1e31        1e31        1e31        1e31        1e31        1e31        1e31        1e31        1e31        1e31        1e31        1e31        1e31        1e31        1e31        1e31        1e31        1e31        1e31        1e31        1e31        1e31        1e31        1e31        1e31        1e31        1e31        1e31        1e31        1e31        1e31        1e31        1e31
1e31        1e31        1e31        1e31        1e31        1e31        1e31        1e31        1e31        1e31        1e31        1e31        1e31        1e31        1e31        1e31        1e31        1e31        1e31        1e31        1e31        1e31        1e31        1e31        1e31        1e31        1e31     2250.74     2244.19     2237.54     2243.26     2259.97     2262.55     2243.72     2215.91     2195.95     2179.18     2125.92     2100.69      2079.9     2050.08     2019.17     2001.21     1995.29     1997.68      2003.9     2018.46     2035.71     2065.55     2097.21     2124.64     2152.43     2173.28     2189.55     2204.16     2210.91     2220.11     2191.67     2187.91     2175.05     2140.34      2142.7     2127.81     2091.84     2095.18     2077.46     2069.36     2054.76     2045.61      2042.3     2028.92     2000.64     1957.72     1943.71     1934.85     1946.88        1963     1976.36     1944.64     1912.26     1915.02     1933.39     1975.29     2028.83     2066.91     2084.62     2072.15     2090.55     2115.08     2121.27     2109.37     2126.42      2140.8     2129.94     2149.76      2185.5     2209.78     2231.17     2230.12     2223.81     2228.97     2249.67     2268.93     2276.56     2244.39     2211.91     2156.43      2093.1     2043.78     1968.46     1903.51     1835.72     1787.04     1771.18     1789.88     1820.67     1868.54     1923.41     1966.77     2017.51     2083.83     2147.25     2208.45     2274.27     2353.56     2386.92     2347.17     2350.33     2387.91     2417.35     2400.59     2363.58     2363.86     2383.12     2404.87     2362.13     2322.87     2348.52     2352.45     2311.36     2268.06     2204.96      2182.4     2193.69     2217.99     2223.01     2226.45     2226.32     2235.44     2199.87     2165.59     2174.39     2178.93     2174.78     2177.13     2172.63      2150.3     2136.67     2121.02     2109.51     2101.25      2086.4      2070.2     2048.13      2028.1     2010.65      1998.1     1985.07     1964.24      1935.5     1904.11     1883.25     1867.36     1854.01     1838.28      1827.7     1825.46     1823.85     1823.51     1833.64     1819.53     1814.38     1827.24      1857.5     1879.57     1890.18     1938.16     1984.74      1991.7     2029.67     2062.11      2116.7     2170.42     2210.22     2213.71     2234.31     2307.45     2337.14     2405.08     2475.45     2532.24        1e31        1e31        1e31        1e31        1e31        1e31        1e31        1e31        1e31        1e31        1e31        1e31        1e31        1e31        1e31        1e31        1e31        1e31        1e31        1e31        1e31        1e31        1e31        1e31        1e31        1e31        1e31        1e31        1e31        1e31        1e31        1e31        1e31        1e31        1e31        1e31        1e31        1e31        1e31        1e31        1e31        1e31        1e31        1e31        1e31        1e31        1e31
1e31        1e31        1e31        1e31        1e31        1e31        1e31        1e31        1e31        1e31        1e31        1e31        1e31        1e31        1e31        1e31        1e31        1e31        1e31        1e31        1e31        1e31        1e31        1e31        1e31        1e31     2239.18     2218.76     2203.41     2200.94     2210.08     2224.45     2229.48     2223.71     2210.95      2193.3     2168.43     2119.88     2092.36     2083.04     2046.53     2010.04     1994.56     1993.52     2002.35     2009.46      2020.9     2035.36     2054.94     2080.71     2107.99     2134.35     2157.06     2171.49     2175.86     2173.12      2168.1     2138.33     2122.02     2117.98     2077.95     2077.66     2065.97     2045.82     2034.08     2018.94     2009.65     2003.43     1993.78        1992     1977.81     1951.51      1940.5     1918.03     1908.07     1913.11      1923.9     1927.91     1916.34     1890.83      1896.7     1919.17     1963.16     2010.92     2035.83     2037.19     2015.62     2027.93      2049.6     2052.88     2058.23      2067.7     2082.55     2078.64     2098.91     2127.63      2150.7     2165.18     2163.68      2162.2     2173.47     2187.24     2209.94     2231.29     2234.92     2229.44     2207.21     2142.44     2072.85     1993.47     1934.34     1859.76     1794.63     1762.38     1783.63     1817.52     1848.25     1906.63     1964.64     2025.39     2089.19      2161.1     2226.66     2294.27     2357.28     2353.76     2306.57      2304.5     2336.54     2376.83     2353.19     2323.57      2324.1     2342.25     2355.73     2375.65      2373.1      2384.1     2385.12     2337.33     2292.41      2261.1     2234.36     2248.55     2272.14     2280.42     2280.28     2293.29     2307.06     2238.38     2192.71     2200.91      2214.8     2231.36     2229.31     2186.77     2159.84      2157.7     2138.62     2126.33     2118.99     2124.33     2120.33     2103.63     2084.71     2059.98     2048.93     2036.96     2022.17     2011.49     1977.48      1938.3     1908.75     1886.51     1868.59     1855.01     1838.62     1825.59     1811.65     1813.99     1800.06     1787.75     1792.19     1808.26     1827.11     1845.79     1887.98      1922.7     1946.98     1985.22     2028.48     2074.15     2099.67     2156.17     2157.33      2221.8     2243.83     2320.42     2362.33     2418.75     2482.77      2543.5        1e31        1e31        1e31        1e31        1e31        1e31        1e31        1e31        1e31        1e31        1e31        1e31        1e31        1e31        1e31        1e31        1e31        1e31        1e31        1e31        1e31        1e31        1e31        1e31        1e31        1e31        1e31        1e31        1e31        1e31        1e31        1e31        1e31        1e31        1e31        1e31        1e31        1e31        1e31        1e31        1e31        1e31        1e31        1e31        1e31        1e31
1e31        1e31        1e31        1e31        1e31        1e31        1e31        1e31        1e31        1e31        1e31        1e31        1e31        1e31        1e31        1e31        1e31        1e31        1e31        1e31        1e31        1e31        1e31        1e31        1e31     2239.59     2198.85     2189.36     2169.35     2162.52     2178.02     2192.47      2198.1     2198.05      2187.2     2180.64     2160.47     2116.59     2078.92     2046.42     2024.01     1999.47     1988.24     1995.39     2003.44     2009.81     2019.75     2031.24     2042.45     2059.08     2078.89     2108.51     2131.58     2146.68     2143.85     2119.26     2095.34     2078.34     2058.05     2052.21     2031.42     2010.25     2008.32     1992.21     1981.46     1963.65     1968.44     1967.56     1953.63     1936.58     1917.39     1897.34     1892.17     1878.68     1873.14     1874.92     1874.88     1878.57     1875.51     1867.25     1873.92     1893.43     1924.21     1958.23     1965.88     1960.37     1951.67     1959.97     1976.03     1985.77     1995.17     2011.19     2025.19     2026.33     2046.23     2066.88     2083.75     2098.09     2099.69     2097.22     2112.99     2131.95     2153.38     2166.06     2166.54     2175.82     2202.05     2168.27     2088.36     2009.26     1955.82     1870.98     1791.96     1752.72     1773.35     1801.26     1827.21     1885.47     1941.89     2008.93     2078.25     2155.82      2223.5     2282.19     2295.54     2317.36     2273.95     2256.16     2290.86     2322.87     2311.39     2275.09     2270.93     2295.04     2305.27     2323.57     2317.15     2325.57     2347.75     2366.88     2332.29     2305.96     2296.44      2303.3     2332.94     2332.48        2337      2371.2     2335.72     2242.78     2201.82     2201.66     2236.12     2294.48     2237.82     2191.83     2167.41     2168.92     2164.72     2147.15     2128.64     2128.81     2130.07     2127.91      2117.5     2116.97     2116.13     2077.21     2062.96     2072.25     2036.05     2000.76     1971.49     1936.44     1908.96     1883.72     1863.28     1849.02     1818.92        1792     1778.41     1769.83     1768.75     1779.16     1807.79     1813.07      1832.3     1868.73     1895.19     1923.44     1985.05     2015.14     2074.11     2092.22     2122.39     2151.88     2223.84      2280.8      2321.5     2371.15     2422.49     2505.55        1e31        1e31        1e31        1e31        1e31        1e31        1e31        1e31        1e31        1e31        1e31        1e31        1e31        1e31        1e31        1e31        1e31        1e31        1e31        1e31        1e31        1e31        1e31        1e31        1e31        1e31        1e31        1e31        1e31        1e31        1e31        1e31        1e31        1e31        1e31        1e31        1e31        1e31        1e31        1e31        1e31        1e31        1e31        1e31        1e31        1e31
1e31        1e31        1e31        1e31        1e31        1e31        1e31        1e31        1e31        1e31        1e31        1e31        1e31        1e31        1e31        1e31        1e31        1e31        1e31        1e31        1e31        1e31        1e31        1e31     2288.34      2245.7     2197.76        2174     2143.46     2127.36     2143.02     2154.21     2153.96     2150.14     2139.95     2138.86     2139.59     2117.62     2073.76     2030.76      2006.7      1991.8     1984.58     1993.03     2002.08     2008.24     2016.16     2025.61     2030.67     2037.78     2049.04     2073.24     2080.86      2085.4     2074.48     2045.87     2030.01     2020.26     1997.55     1987.02     1974.11     1955.37     1953.56     1945.05     1930.14     1921.44     1918.36     1913.57     1904.86     1887.32     1868.82     1853.86     1844.68      1836.8     1824.95     1833.18     1834.91     1836.53     1837.06     1834.42     1843.18     1859.37      1872.1      1888.1     1893.42     1902.69     1901.08     1899.25      1915.8     1928.73      1935.7     1950.38     1965.47     1967.35     1987.71     2007.95     2024.21     2036.14     2040.83     2033.41     2047.87     2068.03      2082.7     2090.07     2105.54     2118.39     2147.66     2156.43      2091.1     2033.21     1985.69     1871.74     1789.49     1748.17     1754.27     1773.94     1811.35     1867.36      1933.9     1999.29     2072.93     2148.88     2213.26     2210.42     2245.41     2262.17     2238.72     2196.85     2234.38     2267.65        2266     2222.65     2202.14     2227.17      2247.5     2272.02     2268.73     2267.15      2288.7     2325.14      2361.5     2378.93     2367.74     2368.65     2379.12     2387.22     2405.48     2418.49     2329.83     2244.22      2202.1     2202.12     2244.47     2309.18      2238.5     2193.48     2168.81     2171.14     2198.43     2167.35      2152.7     2147.49     2153.79     2158.56     2157.13     2163.06     2154.86     2112.94     2104.62     2096.46     2064.94     2041.51     2017.99     1983.06     1951.57     1931.01     1913.45     1891.34      1860.8     1824.93     1802.66     1775.63     1760.96     1763.85     1776.12     1781.74     1806.98     1820.16     1846.64      1884.5     1926.76      1980.2     2026.22     2041.95      2073.6     2135.74     2184.06     2217.96     2281.45     2328.13     2411.83     2497.59        1e31        1e31        1e31        1e31        1e31        1e31        1e31        1e31        1e31        1e31        1e31        1e31        1e31        1e31        1e31        1e31        1e31        1e31        1e31        1e31        1e31        1e31        1e31        1e31        1e31        1e31        1e31        1e31        1e31        1e31        1e31        1e31        1e31        1e31        1e31        1e31        1e31        1e31        1e31        1e31        1e31        1e31        1e31        1e31        1e31        1e31
1e31        1e31        1e31        1e31        1e31        1e31        1e31        1e31        1e31        1e31        1e31        1e31        1e31        1e31        1e31        1e31        1e31        1e31        1e31        1e31        1e31        1e31        1e31     2324.12     2298.84     2256.72     2200.52     2162.42     2122.55     2096.92     2104.44      2112.5     2109.78     2101.06     2084.75      2088.6     2090.97     2084.47     2069.56     2029.53     2005.06     1988.85     1979.18     1986.66      1996.3     2003.97     2009.18     2015.64     2016.13     2013.86     2015.52     2019.82     2019.12     2016.06     2006.66     1984.07     1968.66     1960.27     1942.58     1929.16     1920.31     1914.82     1904.56     1899.68     1890.27     1885.04     1876.12     1868.58     1853.82     1836.54     1823.06     1811.49     1801.12     1790.55     1782.55     1787.05     1784.84     1790.41     1795.03     1797.96     1810.65     1825.92     1838.45     1844.19     1848.72     1854.71     1852.44     1853.48     1870.73      1879.7     1884.98      1897.1     1904.64     1915.12      1932.7     1954.74     1969.48      1978.3     1974.67     1976.22     1981.52     2001.41     2009.49     2017.95     2040.81     2062.62      2083.1     2096.84     2088.38     2021.19     1942.31     1859.29     1786.59      1739.6     1747.84     1765.51     1806.92     1861.15     1928.14     1997.16     2073.29      2140.9     2159.95     2150.64     2185.57     2200.73     2185.32      2149.2     2175.05     2206.42     2215.47     2182.25     2142.16     2175.53      2192.6     2210.73     2211.13     2210.84     2233.05     2264.19     2305.91     2349.66     2321.77        2313     2334.99     2376.43     2378.59     2404.83     2340.42     2260.81     2203.35     2203.81        2253     2319.87     2245.38     2202.46     2176.75     2192.01     2233.95     2196.58     2162.02     2170.99     2186.99     2198.09     2210.28     2214.68     2186.21     2146.37     2144.91     2113.48     2093.46     2072.36     2053.27      2024.1     2005.47     1986.64     1965.53     1943.26     1923.88     1891.32     1856.69     1818.07     1780.52     1755.58     1753.77     1761.15     1766.02      1785.3     1807.49     1836.43     1884.86     1925.37     1962.32      2007.1     2050.21      2080.5     2134.45     2187.06      2236.8     2304.09     2394.15     2491.72     2553.15        1e31        1e31        1e31        1e31        1e31        1e31        1e31        1e31        1e31        1e31        1e31        1e31        1e31        1e31        1e31        1e31        1e31        1e31        1e31        1e31        1e31        1e31        1e31        1e31        1e31        1e31        1e31        1e31        1e31        1e31        1e31        1e31        1e31        1e31        1e31        1e31        1e31        1e31        1e31        1e31        1e31        1e31        1e31        1e31        1e31
1e31        1e31        1e31        1e31        1e31        1e31        1e31        1e31        1e31        1e31        1e31        1e31        1e31        1e31        1e31        1e31        1e31        1e31        1e31        1e31        1e31        1e31     2334.87     2303.03     2287.67      2251.6     2202.44     2158.43     2112.58     2081.93     2069.52     2067.25     2062.52     2053.47     2038.92     2034.53      2034.1     2030.77     2022.48     2007.67     1989.29     1975.42     1959.96     1974.06     1985.74     1992.95     1996.83     2003.55     1999.35     1991.91     1981.57     1971.52     1958.34     1948.29     1935.97        1927     1913.71     1903.48     1892.57     1878.79     1873.17     1869.79     1863.17     1856.86     1847.31     1836.69     1828.04     1820.01     1807.07     1796.47     1785.31     1779.19     1769.98      1757.4     1748.93        1747     1745.85     1747.29     1756.18     1763.63     1776.11     1783.27     1797.27      1801.1     1812.42     1818.53     1818.14     1818.63     1830.54     1838.61     1841.27     1850.72     1856.71     1876.07     1891.52     1905.89     1916.68     1919.42     1910.59     1913.72     1916.64     1933.15     1946.85        1960     1974.75     2003.02     2018.68     2026.31     2014.99     1969.82     1904.79     1838.99      1776.4     1734.24     1739.68     1761.64     1802.74      1863.1      1932.8     2002.58     2077.03     2107.21     2102.48     2107.09      2136.2     2142.19     2116.91     2104.11     2110.95     2150.47     2154.41     2133.11     2096.61      2120.2     2142.29      2165.4     2159.21     2144.44     2175.72     2202.21     2252.83     2282.64     2256.96     2259.24     2283.15     2319.55     2302.61     2331.45     2356.85     2281.35     2230.67     2244.73     2276.62     2345.45     2262.17     2225.63     2200.47     2228.15     2251.97     2192.27     2167.86     2185.55     2217.71     2240.96     2269.07     2254.41     2202.01     2161.14     2150.36     2133.93     2118.28     2110.14      2107.3     2092.96     2068.01     2041.63     2008.46     2001.04      1978.5     1946.33     1914.54     1872.24     1829.26     1780.94     1751.47     1741.84     1743.75     1753.74      1770.5     1811.37     1838.17     1876.85     1920.04     1966.03     2011.32     2051.37     2086.95     2158.41     2224.14     2279.35     2368.21     2451.33     2535.29        1e31        1e31        1e31        1e31        1e31        1e31        1e31        1e31        1e31        1e31        1e31        1e31        1e31        1e31        1e31        1e31        1e31        1e31        1e31        1e31        1e31        1e31        1e31        1e31        1e31        1e31        1e31        1e31        1e31        1e31        1e31        1e31        1e31        1e31        1e31        1e31        1e31        1e31        1e31        1e31        1e31        1e31        1e31        1e31        1e31
1e31        1e31        1e31        1e31        1e31        1e31        1e31        1e31        1e31        1e31        1e31        1e31        1e31        1e31        1e31        1e31        1e31        1e31        1e31        1e31        1e31     2366.54     2312.42     2283.28     2269.49     2226.16      2189.9     2155.57     2106.54     2076.52      2063.1     2047.33     2036.26     2025.75     2011.98     1999.98     1990.02     1984.32     1977.74     1970.81     1962.59     1952.01     1941.13     1948.31     1963.96     1975.45      1979.6     1985.81     1975.02     1957.96     1939.28     1919.23     1908.18     1895.21     1886.16     1878.36     1867.17     1855.02     1848.03     1835.97     1830.85     1831.67     1827.78     1813.65     1803.96     1796.77     1785.36     1782.15     1773.49     1765.01     1753.13     1750.49     1743.22     1732.23     1727.43     1722.81     1718.56     1717.25     1725.35     1726.39     1739.32     1745.98     1756.04     1762.68     1767.98     1775.96     1779.51      1782.2     1793.15     1795.08     1797.44     1806.45     1817.88     1830.93     1844.89     1857.82     1865.33     1866.55     1852.14     1852.63     1864.82     1884.74     1896.49     1911.09     1922.61     1942.31      1956.5     1958.51     1947.15     1939.23     1879.84     1813.03     1760.62     1728.27     1732.21     1756.35     1801.02     1871.53     1950.21     2014.07     2057.55     2055.32     2043.21     2045.71     2087.86     2080.97     2054.77     2048.05     2067.21     2101.08     2096.23     2082.36     2054.47      2064.6     2088.26     2104.09     2098.69     2080.07     2104.25     2166.26      2220.9     2223.44     2198.94     2205.99     2229.85     2266.53     2233.17     2276.46     2320.65        2324     2294.79     2310.82     2329.96     2387.04     2301.68     2254.48     2238.46     2270.19      2282.3     2192.03     2176.94     2205.94     2252.11     2307.17     2329.57     2277.04     2212.25     2179.04     2164.61     2156.06      2148.5      2166.6     2194.08     2178.86     2112.23     2082.82     2055.75     2060.21     2040.23     2000.06     1965.37     1926.98     1882.54     1833.28     1780.64      1749.2     1721.53     1728.09     1735.53      1770.7     1802.23     1835.68     1870.12     1923.08      1963.8     2016.32     2075.29      2119.3      2197.1     2273.46      2321.7     2409.56     2502.35        1e31        1e31        1e31        1e31        1e31        1e31        1e31        1e31        1e31        1e31        1e31        1e31        1e31        1e31        1e31        1e31        1e31        1e31        1e31        1e31        1e31        1e31        1e31        1e31        1e31        1e31        1e31        1e31        1e31        1e31        1e31        1e31        1e31        1e31        1e31        1e31        1e31        1e31        1e31        1e31        1e31        1e31        1e31        1e31        1e31
1e31        1e31        1e31        1e31        1e31        1e31        1e31        1e31        1e31        1e31        1e31        1e31        1e31        1e31        1e31        1e31        1e31        1e31        1e31        1e31        1e31      2357.2     2307.46     2273.58     2257.28     2211.67     2185.88     2143.73      2101.4     2073.01      2060.5     2042.66      2028.4     2012.93     1995.34     1979.12     1971.31     1960.79     1945.53     1936.76     1930.19     1923.74     1921.59      1915.4      1926.4     1939.08     1949.06     1953.44     1935.56     1914.38     1897.48     1879.67     1867.46     1853.61     1840.12     1830.41     1820.56     1809.71     1805.38     1803.23     1794.83     1795.92     1792.35     1786.57     1776.54     1772.49     1758.54     1754.01     1748.36     1744.12      1735.9     1730.77     1724.79     1717.48     1715.07     1711.61     1706.82     1703.28     1702.69     1709.83     1708.26     1711.63     1723.55     1729.01     1733.04     1734.24     1741.79     1744.66     1751.64     1753.19     1753.54     1759.09     1770.81     1781.66     1795.15     1802.55     1805.35     1810.57     1801.99     1801.29     1824.89     1834.74     1845.16     1857.23     1867.61     1879.44     1882.89     1882.38     1877.92     1882.06     1854.34     1793.53     1745.79     1719.01     1728.23     1759.26     1804.23     1879.12     1966.79     1973.58     1983.81     1980.25     1980.21     1991.62     2020.62     2012.57     1996.31     2018.61     2053.71     2042.95     2042.75     2037.35     2007.83     2016.63     2031.06     2046.19     2030.02     2031.97     2060.27     2134.27     2181.61     2170.37     2133.02     2137.47     2174.26     2212.02     2168.66     2219.13     2273.42     2324.94     2366.94     2354.27     2363.11     2385.16     2356.01      2284.2     2286.59     2346.35     2291.02     2208.42     2189.85      2234.6     2305.44      2373.6     2333.52     2303.05     2249.22     2211.89     2216.54     2209.26     2229.03     2266.83      2277.2     2214.84     2148.33     2111.45     2114.21     2143.59     2109.53     2072.36     2037.83     1996.65     1937.46      1886.7     1819.47     1778.31     1733.67     1705.16     1720.72     1743.98     1762.54        1797      1834.4     1874.96     1936.33      1980.1     2044.88     2105.32     2154.26     2225.86     2323.48     2422.61     2513.13        1e31        1e31        1e31        1e31        1e31        1e31        1e31        1e31        1e31        1e31        1e31        1e31        1e31        1e31        1e31        1e31        1e31        1e31        1e31        1e31        1e31        1e31        1e31        1e31        1e31        1e31        1e31        1e31        1e31        1e31        1e31        1e31        1e31        1e31        1e31        1e31        1e31        1e31        1e31        1e31        1e31        1e31        1e31        1e31        1e31
1e31        1e31        1e31        1e31        1e31        1e31        1e31        1e31        1e31        1e31        1e31        1e31        1e31        1e31        1e31        1e31        1e31        1e31        1e31        1e31        1e31      2356.7     2303.13     2281.95     2256.53     2217.21     2194.39      2155.2     2111.41     2081.19     2060.53     2039.86     2021.97      2008.7     1999.73     1977.88      1964.5     1952.78     1938.88     1923.88     1906.15     1894.41     1894.35     1886.45     1893.36      1903.2     1905.95      1909.1     1896.41     1879.97     1868.09     1846.95     1829.83     1820.24     1808.85      1794.5     1783.57     1776.64     1777.08     1776.09     1769.24     1768.09     1764.61     1764.25     1753.61      1749.9     1744.58     1740.13     1737.14     1730.93     1725.85     1721.21      1715.8     1708.83     1705.68     1700.38      1697.4     1694.33     1691.42     1692.01     1690.87     1691.79     1695.46     1700.23     1702.67     1703.51     1711.16     1712.11     1715.49     1712.19      1712.2     1716.08      1722.7     1739.48     1743.36      1747.1      1747.3     1752.63     1746.03     1752.45     1767.86     1783.16     1796.01     1804.31     1810.55      1810.9     1809.33     1807.39     1801.79     1804.97     1795.87     1765.44     1726.74     1704.77     1723.25     1758.15     1805.52     1861.97     1878.06     1877.65      1892.9     1908.31      1907.4     1940.07        1952     1940.61     1930.64     1967.35     1980.13      1980.6     1983.46     1995.58     1956.23     1965.54     1982.52     1985.98     1971.66     1991.73     2031.67     2092.38     2126.02     2119.52     2089.13     2081.49     2119.58     2155.06     2122.02     2169.08     2228.73     2284.08     2311.28     2289.46     2298.83     2321.28     2332.63     2348.07     2388.92     2400.46     2310.52     2243.37     2235.34     2290.36     2362.96     2399.62     2350.49      2322.6     2279.11     2265.53      2262.3      2285.6     2334.47     2353.35     2298.66     2227.17     2179.17     2157.47     2201.99     2218.73     2175.31      2136.4     2105.01     2060.91     1990.84     1928.34     1886.05     1823.65     1762.52     1728.54     1693.08     1711.21      1739.1     1764.64     1798.76     1838.37     1890.44     1946.84     2002.53     2084.01     2184.96     2255.89     2325.78     2371.01     2499.92        1e31        1e31        1e31        1e31        1e31        1e31        1e31        1e31        1e31        1e31        1e31        1e31        1e31        1e31        1e31        1e31        1e31        1e31        1e31        1e31        1e31        1e31        1e31        1e31        1e31        1e31        1e31        1e31        1e31        1e31        1e31        1e31        1e31        1e31        1e31        1e31        1e31        1e31        1e31        1e31        1e31        1e31        1e31        1e31        1e31
1e31        1e31        1e31        1e31        1e31        1e31        1e31        1e31        1e31        1e31        1e31        1e31        1e31        1e31        1e31        1e31        1e31        1e31        1e31        1e31        1e31     2363.15     2318.27      2281.7     2249.09      2217.2      2198.4     2164.83      2114.9     2078.83     2054.64     2035.47     2015.13      2002.2     1991.77     1972.62     1961.58     1948.33     1938.94     1921.43     1899.81     1881.47     1873.15     1864.96     1858.79     1861.31     1861.88      1863.7     1855.35     1842.13     1829.67     1814.09     1798.13     1786.84     1776.31     1764.41     1758.86     1757.79     1756.14     1755.11      1749.7      1748.6     1746.69     1748.01     1743.49     1738.11     1732.79     1728.99     1726.99      1720.9     1717.18     1713.66      1710.3     1712.51     1715.24     1710.14     1704.93     1698.92     1694.94     1689.03     1684.69     1679.06     1681.19     1685.29     1688.24     1689.14     1687.62      1681.6     1680.89     1678.07     1685.66      1688.6     1689.93     1696.66     1700.02     1703.95     1703.95     1707.51     1705.07     1710.47     1723.75     1738.89     1747.03     1755.71     1758.68     1751.25     1744.02     1743.58     1738.41     1741.75     1734.66     1716.56     1694.79        1674      1702.4     1737.01     1783.03     1794.45     1793.69     1802.16     1822.69     1839.55     1850.23     1874.33     1880.43     1875.16     1882.28     1900.52     1908.54     1917.09     1918.45     1932.32     1910.39     1895.24      1934.8     1929.33     1911.22     1948.22     2007.63     2051.79     2059.88     2056.83     2034.21     2035.29     2075.72     2098.88     2070.27     2114.47      2179.9     2245.31     2258.91     2236.55     2249.08      2263.7     2271.36      2317.6     2361.42     2384.11     2375.19     2320.54     2310.21     2369.93     2405.21     2413.11     2379.33     2345.64     2290.83     2304.55     2333.08     2379.33        2420     2402.28     2331.58     2270.12     2251.59     2259.12     2281.79     2278.15     2238.95     2188.09     2141.98     2083.28      2032.4     2000.54     1944.67     1877.22      1803.4     1754.08      1692.7     1684.63      1706.5     1734.29     1766.79     1804.67     1853.55      1918.7     1974.03     2057.44      2139.2     2208.05     2266.28     2348.43     2474.95        1e31        1e31        1e31        1e31        1e31        1e31        1e31        1e31        1e31        1e31        1e31        1e31        1e31        1e31        1e31        1e31        1e31        1e31        1e31        1e31        1e31        1e31        1e31        1e31        1e31        1e31        1e31        1e31        1e31        1e31        1e31        1e31        1e31        1e31        1e31        1e31        1e31        1e31        1e31        1e31        1e31        1e31        1e31        1e31        1e31
1e31        1e31        1e31        1e31        1e31        1e31        1e31        1e31        1e31        1e31        1e31        1e31        1e31        1e31        1e31        1e31        1e31        1e31        1e31        1e31        1e31        1e31      2347.9      2289.7     2248.52     2209.86     2186.96     2162.78     2119.07     2079.93     2063.69     2051.26     2027.14     2001.47     1989.04     1973.53     1964.08     1954.41     1944.62     1930.96     1908.23     1884.82     1863.71     1846.54     1832.46      1829.6     1828.32     1823.69     1813.56     1806.54     1795.63     1782.86     1770.57     1757.65     1754.42     1751.71     1748.52     1748.36     1747.13     1743.51     1740.22     1738.99     1739.76     1739.77     1736.74     1732.18     1733.62     1734.72     1731.29     1733.11     1732.27     1728.08     1727.56     1730.21     1730.33     1724.97      1715.7     1705.53     1701.72     1697.94     1690.44      1682.1      1674.7     1676.96     1678.99     1678.66     1674.12     1669.62     1668.84     1668.52     1669.17     1671.53     1670.49      1670.2     1672.15     1673.86     1673.64     1675.86     1675.24     1678.59     1684.69     1694.69     1699.74     1708.79     1710.31     1700.14     1684.52     1679.58     1673.87     1682.45      1674.3     1662.11     1657.18     1646.88      1672.1     1696.31      1728.4     1738.15     1738.18     1750.91     1764.42     1778.59     1794.25     1809.37     1817.67     1820.52     1828.33     1836.96     1844.85      1851.1     1859.81     1867.19     1861.43     1837.01     1883.22     1867.03     1861.95     1922.43     1956.83     1979.49     1987.15     1988.68     1980.76     1988.62     2032.33     2039.59     2029.72     2085.56     2144.59     2206.79     2204.74     2179.23     2185.98     2206.21     2224.22     2271.17     2320.43      2334.5     2336.47     2341.38     2362.33     2406.67     2422.19      2426.4     2411.88     2368.66     2330.51     2356.24     2389.51     2396.48     2392.26      2395.5     2385.21     2346.33      2333.5     2324.45     2308.77     2276.95     2233.76     2182.47     2141.53     2109.88     2105.95     2052.05      1987.5     1940.35     1872.96     1801.65     1720.58     1673.62     1675.59     1705.15        1733     1766.99     1820.97     1881.75     1960.21     2027.41     2095.86      2194.1     2270.91     2368.48     2490.91        1e31        1e31        1e31        1e31        1e31        1e31        1e31        1e31        1e31        1e31        1e31        1e31        1e31        1e31        1e31        1e31        1e31        1e31        1e31        1e31        1e31        1e31        1e31        1e31        1e31        1e31        1e31        1e31        1e31        1e31        1e31        1e31        1e31        1e31        1e31        1e31        1e31        1e31        1e31        1e31        1e31        1e31        1e31        1e31        1e31
1e31        1e31        1e31        1e31        1e31        1e31        1e31        1e31        1e31        1e31        1e31        1e31        1e31        1e31        1e31        1e31        1e31        1e31        1e31        1e31        1e31        1e31        1e31     2300.45     2248.09     2218.38     2197.41      2166.8     2131.61     2101.27     2090.05     2088.71     2069.72     2029.59     1999.45     1990.88     1979.42     1968.09     1954.88     1940.41     1921.78     1900.11     1877.42     1857.46     1839.75     1816.49     1803.49     1799.13      1792.7     1784.39     1775.18     1762.42     1755.68     1751.36     1756.04     1756.99     1753.37     1745.92     1743.75     1743.27     1742.68     1741.97     1738.29     1735.82     1740.07     1740.76     1743.33     1748.81     1753.45     1754.71     1751.29     1755.23     1754.77     1753.58     1749.92     1742.14     1728.45     1714.73     1708.68     1704.86     1696.94     1687.88     1678.51     1671.56     1672.19     1671.44      1668.4      1665.5     1664.52     1664.02     1662.14      1661.6     1662.65     1660.31     1657.78     1657.73     1655.08     1655.03     1651.99     1652.82     1655.67     1656.51     1654.88     1661.56     1662.56     1654.65     1641.11      1634.2      1629.6     1628.73     1623.27     1617.32     1619.27     1622.53     1638.41     1653.51     1672.81      1684.6     1692.48     1703.09     1715.02     1729.39     1741.38     1750.22     1759.87     1765.16     1772.42     1775.46     1782.23     1789.64     1795.57     1801.97     1802.38     1800.61     1821.79     1812.81     1832.66     1866.17     1888.53     1902.07     1909.35     1921.55     1918.05     1940.31     1989.21     1972.04     1995.98     2052.03     2111.66     2172.38     2160.48     2127.22     2124.85      2139.7     2181.94     2226.29     2271.49     2265.25     2278.06     2282.03      2317.2     2362.94     2414.14     2418.71     2399.22      2369.6     2354.95     2375.67     2348.09     2343.65     2336.46     2334.26     2336.09     2338.27     2337.76     2328.14      2303.3     2263.52     2229.35     2188.49      2156.8     2151.56     2142.33      2099.6     2055.28      1973.9     1924.73     1846.85     1756.03     1692.75     1650.13     1674.06     1699.06     1746.23     1797.56     1864.28     1922.74     2001.35     2093.48      2180.5      2232.6     2407.52     2500.13        2473        1e31        1e31        1e31        1e31        1e31        1e31        1e31        1e31        1e31        1e31        1e31        1e31        1e31        1e31        1e31        1e31        1e31        1e31        1e31        1e31        1e31        1e31        1e31        1e31        1e31        1e31        1e31        1e31        1e31        1e31        1e31        1e31        1e31        1e31        1e31        1e31        1e31        1e31        1e31        1e31        1e31        1e31        1e31        1e31
1e31        1e31        1e31        1e31        1e31        1e31        1e31        1e31        1e31        1e31        1e31        1e31        1e31        1e31        1e31        1e31        1e31        1e31        1e31        1e31        1e31        1e31        1e31     2305.02      2244.6     2224.63     2209.27     2183.27     2150.95     2124.09     2113.26     2112.23     2098.74     2061.77     2029.88     2018.44     2006.44     1990.46     1973.36     1956.48     1935.64     1914.79     1891.54     1869.34     1850.65     1832.68     1809.17     1794.97     1780.86     1772.32     1762.06     1755.56     1756.15      1766.8     1785.05     1784.23     1771.24     1759.19     1758.14     1757.39     1757.74     1755.85     1757.44     1759.62     1764.98     1765.37     1769.11     1776.38     1783.55     1784.29     1781.44     1788.98     1789.29     1785.17     1779.22     1769.24     1755.62     1739.65     1728.36     1717.76     1696.44     1688.22     1683.91     1679.78     1675.99     1673.37     1671.83     1672.21     1667.31      1664.8     1662.49     1662.22     1655.32     1651.27     1648.78     1646.32     1643.26     1639.35     1638.93     1636.91      1634.3     1632.64     1629.68     1628.03     1626.21     1618.81     1612.75     1607.38     1601.81     1594.66      1586.7     1584.28     1585.95      1589.1        1594     1607.54     1629.32     1641.47     1651.82     1659.54     1667.36     1679.77      1690.4     1699.18      1706.4     1709.96     1719.78     1723.15     1732.26     1732.79     1738.46        1746      1746.5      1762.1     1766.43      1764.7     1784.32     1809.96      1826.9     1830.59     1844.56     1860.18     1857.42     1899.38     1944.71     1913.39     1952.81     1997.76     2089.84      2116.2      2114.2      2091.3     2072.35     2093.67     2129.98     2186.04     2222.64     2200.66     2215.61     2243.07     2270.63     2319.38     2369.73     2346.23     2330.33     2316.05     2298.28     2320.07     2306.66     2297.59     2297.17     2298.84     2289.53      2284.3     2288.65     2295.84     2290.98     2259.29      2232.8     2207.31     2175.85     2164.53     2147.98     2126.61     2096.62     2039.08     1965.19     1878.47     1798.32     1722.77     1662.75     1642.41     1678.75     1717.77     1768.89     1837.48     1898.81     1966.88     2041.15     2109.94     2176.51     2270.91     2373.76     2446.15     2430.55        1e31        1e31        1e31        1e31        1e31        1e31        1e31        1e31        1e31        1e31        1e31        1e31        1e31        1e31        1e31        1e31        1e31        1e31        1e31        1e31        1e31        1e31        1e31        1e31        1e31        1e31        1e31        1e31        1e31        1e31        1e31        1e31        1e31        1e31        1e31        1e31        1e31        1e31        1e31        1e31        1e31        1e31        1e31
1e31        1e31        1e31        1e31        1e31        1e31        1e31        1e31        1e31        1e31        1e31        1e31        1e31        1e31        1e31        1e31        1e31        1e31        1e31        1e31        1e31        1e31        1e31        1e31     2267.94     2229.03     2212.96     2185.59      2160.8     2140.46      2123.3     2116.46     2105.49     2072.84     2054.07     2039.35     2027.12     2014.14     1995.41     1979.01     1959.36     1934.74     1910.21     1884.37     1860.51     1841.38     1821.73     1799.85     1785.52     1771.28     1762.31     1771.41     1775.86     1799.69     1809.31     1796.33     1796.09     1785.58     1783.78      1782.7     1783.69     1782.46     1790.08     1795.99     1800.56     1802.35     1805.55     1811.32     1820.81     1823.26     1820.51     1824.34     1826.55     1822.45     1814.79     1803.55     1789.11     1768.74     1744.99      1724.2     1720.55     1716.45     1710.71     1701.47     1693.14     1692.72      1692.5     1683.79      1678.6     1677.06      1672.1     1670.36      1667.3     1665.54     1663.91     1655.99     1648.89     1648.01     1638.37     1630.77     1625.53     1622.73      1616.9     1611.44     1609.07      1602.1      1594.9     1592.54     1589.28     1582.09     1577.32      1569.8     1562.44     1560.98     1562.03      1568.6     1581.42     1589.59      1600.1     1607.63     1615.14     1629.83     1638.02      1643.2     1650.14     1646.29     1660.13     1661.88     1664.92     1665.68     1673.21     1686.38     1685.91     1706.19     1712.22     1715.66     1728.18     1745.69     1761.54     1769.85     1782.26     1793.13     1798.64     1829.27     1873.67     1858.89     1917.49     1981.73     2026.42     2037.55     2050.59      2041.8     2008.06     2040.36     2083.68     2138.86     2165.06     2129.93     2150.04     2183.95     2225.61     2276.45     2321.08     2284.68     2269.55     2243.25     2242.65     2271.29     2254.39     2238.22     2250.78     2257.02     2253.02      2227.9     2229.43     2256.65     2273.13     2235.53     2212.12     2196.44     2187.17     2169.13     2150.64     2127.26     2098.46     2038.14     1973.01     1901.54     1821.32     1741.05     1673.75     1629.63      1648.8     1693.01     1741.08     1794.34     1865.12     1942.18     2019.26     2102.63     2183.27     2282.65      2391.7     2423.49     2414.54     2399.49        1e31        1e31        1e31        1e31        1e31        1e31        1e31        1e31        1e31        1e31        1e31        1e31        1e31        1e31        1e31        1e31        1e31        1e31        1e31        1e31        1e31        1e31        1e31        1e31        1e31        1e31        1e31        1e31        1e31        1e31        1e31        1e31        1e31        1e31        1e31        1e31        1e31        1e31        1e31        1e31        1e31        1e31
1e31        1e31        1e31        1e31        1e31        1e31        1e31        1e31        1e31        1e31        1e31        1e31        1e31        1e31        1e31        1e31        1e31        1e31        1e31        1e31        1e31        1e31        1e31        1e31     2269.83      2231.5     2198.34     2178.55     2165.06     2152.24     2136.94     2122.97     2115.45     2098.22     2060.96     2046.83     2040.41     2030.88     2017.66      2002.9     1985.91     1960.44     1931.12     1900.81     1871.82     1847.48      1825.2      1801.7     1783.38     1775.24     1785.61     1793.96     1804.94     1832.07     1821.84     1822.39      1827.8      1820.9      1812.4     1814.63     1820.25     1822.97     1838.14     1847.06     1846.87     1852.36     1853.22     1856.95     1862.41     1860.84     1854.21     1854.18      1858.2     1856.02     1849.81     1833.73      1813.9     1788.47     1757.96     1736.25     1737.57     1741.58     1738.31     1726.15     1719.41      1714.5     1714.95     1708.86     1704.94     1702.78     1698.17     1693.22     1691.49     1690.03     1685.31     1677.06     1675.66     1664.56     1653.19     1651.81     1645.02     1634.63     1628.98     1618.08     1612.26     1605.33      1599.1     1592.28     1588.15     1583.47     1575.52     1561.61     1555.49      1548.2     1540.41     1546.84     1550.75     1551.49     1556.11     1564.19     1570.49     1582.92     1582.11     1582.58     1588.69     1597.32     1599.76     1604.32     1605.59     1609.65     1617.64     1631.04      1625.9     1644.54     1651.85     1657.11     1668.96     1676.15     1683.98     1694.59     1716.17      1729.2     1734.52     1772.84     1806.49     1812.44     1874.44     1916.59     1940.37     1960.78      1986.3     1990.61      1954.7     1985.19     2036.49     2095.91     2104.18     2081.32     2093.17     2138.19     2179.83     2236.48     2283.45     2231.85     2191.87     2175.51     2175.76      2216.2     2200.96     2177.99     2193.15     2206.98     2187.88     2160.48     2157.36     2208.24      2219.6     2181.14     2152.38     2124.27     2140.52      2156.4     2154.93     2126.33     2091.67     2018.56     1961.86     1897.77     1823.73     1743.68     1679.14     1633.14     1636.04     1686.95     1734.87     1781.74     1845.81     1927.17     2007.53     2115.76     2181.07     2264.86      2314.1     2399.39     2398.42     2389.69     2379.47        1e31        1e31        1e31        1e31        1e31        1e31        1e31        1e31        1e31        1e31        1e31        1e31        1e31        1e31        1e31        1e31        1e31        1e31        1e31        1e31        1e31        1e31        1e31        1e31        1e31        1e31        1e31        1e31        1e31        1e31        1e31        1e31        1e31        1e31        1e31        1e31        1e31        1e31        1e31        1e31        1e31
